ply
format ascii 1.0
comment Created by Open3D
element vertex 883
property double x
property double y
property double z
property double nx
property double ny
property double nz
end_header
10.3514 95.7771 15.7648 0.0227923 0.978396 -0.196452
-9.61999 34.228 63.5049 -0.884136 0.000184003 0.42063
-2.72263 -83.177 -6.70379 -0.384101 -0.278177 -0.826353
-10.2601 -54.8413 33.1945 -0.999853 0.00509726 -0.00996486
7.0186 -90.5855 -14.2034 -0.00439487 -0.24225 -0.900946
-17.5711 60.6101 2.86821 -0.709498 0.0332307 0.671142
-3.91882 12.4685 61.6974 0.69177 0.0322967 0.694648
-5.63088 21.6718 0.229998 -0.239951 0.418043 -0.861412
-5.19722 -49.5993 65.9995 0.216091 0.105194 0.890363
25.5841 -23.2172 45.4421 0.998127 -0.00510845 0.0364936
12.2106 52.7436 -8.17629 0.00416652 -0.127026 -0.970505
-19.9697 54.2073 -4.52931 -0.976772 0.0489329 -0.181055
-10.279 71.7542 32.2538 -0.999334 -0.0246148 -0.00914902
22.8112 29.6099 14.2608 0.688001 -0.0552379 0.440317
-3.90789 -25.3046 59.655 0.712611 0.138894 0.663212
-14.0749 30.793 1.09752 -0.451762 -0.890563 -0.0513442
25.7382 -84.1659 12.3333 0.99809 -0.0434411 -0.0302231
19.0398 40.2217 63.8502 -0.669289 -0.0446652 0.72487
10.6071 -99.1844 15.7102 0.135955 -0.695341 0.654583
3.97484 76.6428 -7.64357 -0.0211063 0.189356 -0.979105
-7.69875 -23.5306 22.7809 -0.690268 0.0264325 -0.354346
22.8113 14.3116 15.8576 0.688188 -0.0315354 0.29138
25.5661 -17.2956 44.4126 0.998254 -0.00562778 0.0327565
-10.6704 -61.3235 56.7741 -0.996542 -0.00438105 0.0791733
15.6561 93.7636 8.03646 0.0541026 0.942672 -0.321287
8.16648 84.5091 66.2048 0.0062754 -0.0888159 0.918144
-7.69818 -59.8287 14.0091 -0.684583 0.102257 0.466765
-5.13746 -7.41147 66.0009 0.229415 0.108241 0.887961
-5.54859 48.5618 -8.02883 -0.0724822 -0.0748493 -0.982013
27.2175 95.9577 19.1705 0.281878 0.943713 -0.144518
19.0232 -17.2198 62.5183 -0.670601 0.111019 0.707531
-10.5625 -44.232 50.6969 -0.997463 -0.0039412 0.0557523
-7.69828 24.1398 15.6026 -0.688429 -0.0482844 0.31492
19.0119 -56.2993 64.3815 -0.608842 0.192775 0.758808
5.56348 22.9538 58.63 0.127244 -0.00485983 0.663667
23.6665 -21.2118 11.2635 0.558177 0.0531524 0.802834
38.5534 -2.18178 0.743407 -0.94746 0.0484845 0.0895929
-10.5194 0.256137 48.0254 -0.997488 -0.0110773 0.0483791
22.5073 -53.744 65.708 0.389734 -5.94904e-05 0.919711
-12.6836 79.7933 18.9707 -0.896303 -0.387146 0.214444
25.4008 -31.405 8.27536 0.844693 0.303079 -0.369738
29.9691 -4.27976 0.23 0.216472 0.424198 -0.77806
-10.6534 -51.4113 2.03652 -0.759718 0.406562 -0.0505677
-8.50687 -71.5915 18.6032 -0.552643 0.765066 0.21112
35.6328 39.1482 1.59574 0.868661 -0.0194142 0.477963
24.4703 -49.813 64.055 0.852884 -0.000441678 0.521085
-3.36325 93.7712 64.7899 -0.101084 0.644758 0.753034
-10.4282 -69.6058 42.892 -0.998575 0.00340591 0.0260412
25.1243 -66.9903 -2.80465 0.89366 0.114687 -0.212794
18.3436 -15.1973 58.63 -0.681234 0.1071 0.654453
25.333 22.6308 30.7535 0.98452 0.0028348 -0.0893972
-10.6009 78.6454 46.7384 -0.997149 -0.0405491 0.0347205
14.7482 82.3403 -5.75909 0.0360383 0.427188 -0.900113
-19.0273 38.6423 -7.29789 -0.505919 -0.0236676 -0.857561
20.6889 98.8939 38.9286 0.110016 0.988912 -0.0786711
32.8639 80.2809 4.41158 0.956616 -0.0370461 0.240777
15.9169 -90.6959 -1.51469 0.48091 -0.641825 -0.505772
4.34845 -67.5467 64.8807 0.033824 0.697066 0.712569
-0.010462 38.5741 1.24787 -0.00800188 0.00488999 -0.99815
-12.9059 95.6281 38.6086 -0.945871 0.311115 0.0693021
25.1416 -95.5823 33.5622 0.962941 -0.25451 -0.0392469
6.11921 -27.0232 58.63 0.0915864 0.141804 0.651597
11.4887 -47.554 -24.11 0.789644 -0.257734 -0.500057
-3.92753 42.5642 65.7538 0.638873 -0.056488 0.756003
17.0917 91.5945 3.16082 0.0573357 0.870161 -0.483979
25.808 30.1017 57.4234 0.995367 -0.0234586 0.0899045
-4.61195 62.0326 66.0138 0.432545 -0.0653529 0.819169
-2.90326 84.2022 -4.70726 -0.0398085 0.521472 -0.850242
25.7462 -26.7881 54.4713 0.99658 -0.00987824 0.0726784
23.17 2.08825 11.2819 0.632479 0.00451884 0.753708
25.7506 -89.5421 53.2054 0.997584 -0.0427174 0.0444303
15.6407 -25.3652 0.230002 0.165313 -0.449038 -0.865143
6.62364 -49.3142 -25.6041 -0.155211 0.524999 -0.763662
-3.9174 7.56627 62.0375 0.687824 0.047391 0.697179
30.6354 83.8745 15.0558 0.949269 -0.206603 0.189947
-8.48676 -58.4749 -6.97099 -0.53462 0.110662 -0.779121
-6.48702 79.1109 -6.85932 -0.082765 0.290961 -0.949603
16.808 -79.3404 66.0592 0.0788615 0.289448 0.876614
7.22151 -96.6578 15.0041 -0.116751 0.891116 -0.232994
-14.3021 88.8287 30.3206 -0.971471 -0.163835 0.141713
-10.1837 25.9167 28.3476 -0.957941 -0.00355425 -0.240697
-3.91851 11.3791 61.5855 0.692954 0.0352608 0.693162
25.5891 46.4592 45.2986 0.997472 -0.0186633 0.041152
-9.15515 42.5016 -7.96852 -0.0932641 -0.103593 -0.978244
25.624 40.5308 59.2273 0.986238 -0.0202558 0.13772
22.8111 65.2931 13.3275 0.689215 -0.108118 0.527903
-20.5094 47.3853 -3.60988 -0.980567 0.0531053 -0.0526473
25.5215 74.3136 41.3848 0.997892 -0.0217187 0.0274013
-7.69858 -50.4394 20.1707 -0.687827 0.073613 -0.110147
27.8026 75.456 11.2876 0.876196 -0.362012 0.31578
3.80411 -82.0496 -15.6085 -0.657198 -0.0404567 0.747833
-3.68741 -93.1918 2.67558 -0.268363 -0.830497 -0.388209
14.1937 -77.1321 -7.95417 0.578533 -0.0714803 -0.763698
-20.7553 43.698 0.435083 -0.907158 0.0239365 0.367494
-8.47573 69.0047 14.2467 -0.579657 -0.72097 0.328568
-3.01387 59.4254 58.63 0.669573 -0.111891 0.672475
19.3825 -7.76261 -2.27 0.334915 -0.20328 -0.907378
-10.4493 7.20155 44.1327 -0.998144 -0.00988593 0.0328769
23.1964 -31.0806 3.13351 -0.813117 0.576121 0.00574145
25.228 27.6901 61.2688 0.968877 -0.00608849 0.222935
-3.90424 -37.9508 60.1788 0.706315 0.177096 0.66588
6.96228 -100.735 58.9124 -0.00536595 -0.891605 0.448801
22.8113 -62.0857 15.2026 0.685063 0.103863 0.355153
-7.69849 -55.8265 18.7658 -0.686968 0.0858423 0.0215012
24.3736 -27.8264 3.6934 -0.296712 0.657024 -0.48772
17.7798 -100.396 58.449 0.146134 -0.857854 0.4894
5.79914 -103.52 4.38249 -0.865044 -0.479441 0.0139261
-10.5293 -55.127 4.28992 -0.811612 0.324274 -0.0247801
-10.5888 -72.514 52.1744 -0.997326 -1.63936e-05 0.0607266
-2.03109 -100.917 50.8439 -0.0690089 -0.995993 -0.0314658
-7.71003 4.82011 11.2956 -0.683913 -0.00568335 0.719725
22.6448 -8.11314 10.0728 0.960106 -0.0573087 0.226715
25.6837 -73.9749 51.1312 0.997471 0.000656485 0.0567928
-11.1252 60.7251 9.04722 -0.810919 -0.00554911 0.583004
-1.30816 94.916 63.8289 -0.0645871 0.673292 0.731102
25.6146 -12.6701 47.1498 0.997802 -0.00784732 0.0436123
-8.82419 99.1246 42.7663 -0.143497 0.987691 -0.0552694
-7.69819 -65.6139 14.2898 -0.684502 0.111858 0.440689
22.8112 -34.194 14.6111 0.685813 0.0560706 0.409604
-7.98409 -92.9432 4.16966 -0.591127 -0.735728 -0.316159
-10.3685 22.5172 39.5751 -0.998819 -0.0100052 0.0154367
-10.2309 -28.6421 9.4642 -0.868323 0.178667 -0.0177551
9.2395 82.2723 -5.89889 0.00843529 0.421925 -0.904086
25.7246 37.2516 52.7993 0.996159 -0.0218156 0.0713915
-10.2106 -72.2744 60.7833 -0.980508 0.00439346 0.174647
25.177 71.1316 61.5711 0.969567 -0.015039 0.227393
34.8934 34.0836 -1.41196 0.780697 -0.557849 0.157246
21.6438 52.6353 65.9647 0.151631 0.000275968 0.987929
25.4415 53.173 37.1606 0.998934 -0.014575 0.00805459
-4.95547 -98.8586 27.7767 -0.110131 -0.983411 -0.138893
-2.72012 -8.42476 58.63 0.649397 0.0872238 0.656089
0.846413 30.0302 1.18647 -0.072947 0.315849 -0.944809
22.5473 48.049 65.6846 0.431456 -7.0271e-05 0.90107
-3.57654 -41.8784 1.25344 -0.120344 -0.0547374 -0.97105
25.7322 -35.2962 53.7684 0.996811 -0.00767195 0.06902
20.3844 31.6444 3.64124 0.547789 0.23837 -0.686766
16.3707 66.1813 64.7678 -0.169299 -0.607767 0.767198
-0.840178 41.7063 1.25614 0.000235318 0.00196699 -0.999998
-7.60888 98.6607 36.9587 -0.129426 0.986574 -0.0856997
-2.4978 -97.958 21.7484 -0.0949327 -0.963509 -0.2081
26.7852 74.887 14.4735 0.915098 -0.337168 0.216834
3.56061 -98.7275 -11.4415 -0.957411 -0.122006 -0.166728
-10.2203 -42.0451 30.4982 -0.973157 0.0201453 -0.14532
-3.93772 34.9079 -8.06582 -0.0311325 -0.257206 -0.950483
-3.92864 46.3919 60.2726 0.708879 -0.0702224 0.687274
-10.2214 -19.9848 9.66843 -0.872599 0.153209 0.0440447
14.7269 -100.995 52.3401 0.0592065 -0.995915 -0.0125735
31.9923 63.444 -7.54749 0.386814 0.0367568 -0.917808
27.7186 33.9696 7.43668 0.71373 -0.0790388 0.691535
13.1993 -1.54586 58.63 -0.355759 0.067038 0.65775
-7.69833 -31.8027 16.3033 -0.686696 0.0485323 0.251164
12.9263 57.0913 -8.16091 0.019177 -0.0665131 -0.981023
-13.6915 48.9269 6.44751 -0.681484 0.000740898 0.730093
22.8114 10.642 16.8842 0.688536 -0.0271201 0.19543
25.6092 -86.7276 40.2322 0.99876 -0.0213369 0.00872045
25.6936 -24.6735 51.5715 0.997104 -0.00836481 0.0608602
2.38275 -80.3972 -17.4781 -0.735642 0.00576568 0.644535
-2.66615 -79.8236 66.0419 -0.0760494 0.269748 0.885238
23.2118 44.6505 65.339 0.542569 -0.000240632 0.835582
-10.6348 25.4556 54.1571 -0.996038 -0.0203232 0.0759794
12.4318 -67.0604 -21.0555 0.815352 0.309516 -0.169787
-6.94129 77.6965 65.8529 -0.25708 -0.00352088 0.960195
21.5118 -21.3407 0.230002 0.112725 -0.30766 -0.896913
6.49709 -88.4802 66.1927 -0.0116378 -0.00300109 0.945159
-7.69808 -18.1216 12.5284 -0.685425 0.0319679 0.603978
-10.6202 -89.4658 34.5125 -0.998688 -0.0409659 -0.00706104
25.6434 77.0873 43.8373 0.997658 -0.0356904 0.025326
-15.4118 37.9579 -7.86023 -0.141017 -0.0822346 -0.983825
24.8121 -35.1447 26.7412 0.421937 0.0757887 -0.894673
-2.13046 50.4621 -8.08834 -0.0452529 -0.0934618 -0.977783
-8.79294 -35.1225 -6.67757 -0.320913 0.48811 -0.723051
25.3784 -96.64 49.5969 0.972593 -0.219052 0.00888241
28.9065 85.955 26.5133 0.941639 -0.25639 0.164285
-12.9364 44.8361 -7.90044 -0.123565 -0.0504034 -0.987937
-10.58 -18.2069 51.486 -0.997046 -0.00963061 0.0610787
23.7156 39.867 26.7081 0.582607 -0.0342898 -0.790267
-7.6984 23.5021 17.4627 -0.68951 -0.0454396 0.141836
-13.5452 22.7431 6.526 -0.641692 0.674576 0.324474
-10.3075 49.1811 36.0402 -0.999192 -0.013025 0.00307338
28.2402 53.6817 -7.89357 0.109114 -0.0227515 -0.990585
1.34254 22.7945 58.63 0.39399 -0.00439281 0.663628
-10.1972 62.3522 29.4599 -0.975805 -0.0213344 -0.152387
-10.5979 61.8454 51.8594 -0.996054 -0.0262042 0.0696711
13.0132 -7.831 58.63 -0.343823 0.0854824 0.656232
-17.7681 74.2147 2.76798 -0.908901 -0.0579974 0.387539
-12.4285 91.9592 48.2078 -0.984655 -0.102 0.131161
25.5937 -53.0458 45.9558 0.998124 -0.000535038 0.0378322
12.5103 99.1409 40.3686 0.0415026 0.993717 -0.0788511
25.4832 -7.19066 39.6309 0.998878 -0.00524655 0.0150574
-4.29092 -80.3867 -7.43546 -0.215363 -0.182759 -0.919411
25.3635 -82.8576 60.5778 0.983023 0.00467677 0.163124
-9.86629 32.7994 -7.94456 -0.0678439 -0.134315 -0.983484
25.5388 -85.5579 7.59312 0.989972 -0.0881817 -0.0657108
22.8118 -10.199 23.9348 0.69176 0.0113992 -0.46086
25.6965 -89.2253 48.1713 0.997569 -0.0453449 0.0328534
21.5207 -88.9227 -3.1799 0.220719 -0.657989 -0.709813
4.19473 -51.855 -15.2888 -0.49095 0.378013 0.682193
-5.84395 -19.3952 65.9843 0.0393936 0.0543845 0.938036
16.716 58.1014 -8.093 0.0554974 -0.00870097 -0.992036
3.56661 -79.5239 -11.4652 -0.83569 0.0918494 -0.385827
18.6957 99.758 55.5096 0.0944672 0.988541 0.103343
-10.2936 65.148 35.1548 -0.999175 -0.0156877 0.00081362
12.612 -25.1068 58.63 -0.317993 0.13618 0.652059
22.8119 9.73978 24.9842 0.693552 -0.0124425 -0.55735
-9.91111 -26.7895 1.23224 -0.547947 -0.718222 -0.426958
20.6406 31.0148 4.6317 0.574099 0.266842 -0.68826
27.7718 74.2659 10.1786 0.860018 -0.335261 0.380722
24.4993 45.8743 63.9362 0.867163 -0.00111784 0.483395
2.20114 -49.5546 -18.0603 -0.742486 0.504343 0.262484
24.2069 -49.5375 26.7144 0.495325 0.0846785 -0.843937
8.2022 -49.9958 -25.37 0.0291555 0.224479 -0.952817
0.593804 -36.6873 58.63 0.439751 0.170164 0.649263
6.38993 -55.2003 -23.8541 0.255645 0.390204 0.877272
-9.86121 -91.7599 12.288 -0.954788 -0.266896 -0.077433
30.6828 90.651 4.78011 0.760177 0.602413 -0.229411
-7.69811 25 12.9228 -0.687201 -0.044505 0.56567
20.7401 97.2947 25.5657 0.112783 0.981686 -0.134999
-11.382 88.6811 -0.742562 -0.112574 0.752543 -0.646514
22.8118 -28.9919 23.088 0.690162 0.0341562 -0.383133
24.5922 -0.327613 63.8273 0.834867 -0.000236242 0.509721
13.6951 38.7777 58.63 -0.388141 -0.0512959 0.66749
25.5414 36.3681 42.7648 0.998067 -0.0149065 0.0297754
-10.4428 -71.9057 43.7345 -0.998466 0.00342242 0.0291492
-10.4049 -81.4861 22.8098 -0.999095 -0.00395623 -0.00758244
22.8447 -14.0594 10.3295 -0.67426 0.0256487 -0.0126589
25.3868 -71.6976 10.3254 0.999106 0.00981592 0.0277803
25.8167 32.6219 57.8834 0.995251 -0.024281 0.0920305
-7.699 -70.7008 22.3206 -0.700992 0.446668 -0.182369
10.7394 40.4322 1.25478 0.0249517 0.196889 -0.965028
-8.52757 97.4838 27.2598 -0.138288 0.981003 -0.125139
-7.72597 94.9154 12.6903 -0.101351 0.968126 -0.220578
17.786 30.1513 1.23 0.194243 0.301515 -0.914918
-9.99395 -74.8856 -2.71371 -0.969657 -0.0261051 -0.2129
-3.43861 -34.4482 58.63 0.694066 0.163593 0.649805
19.0409 43.8386 61.8843 -0.691053 -0.0593723 0.704266
-10.5233 -51.7474 48.4219 -0.997788 -0.00178045 0.0470894
-0.654312 -97.5908 19.4433 -0.140474 -0.945591 0.119726
-4.51878 -96.1998 12.7811 -0.283882 -0.903705 -0.206179
5.5903 53.1586 -8.22369 0.0142846 -0.151168 -0.965665
25.703 -81.9578 10.0944 0.998129 -0.0393614 -0.0209814
-10.4529 59.8031 43.9274 -0.997578 -0.0204744 0.0366572
-3.78357 -33.0347 58.63 0.715851 0.159445 0.650146
24.4416 -93.5654 10.9342 0.875192 -0.45447 -0.131036
-10.6179 78.5887 52.8293 -0.995678 -0.0302681 0.0751601
-10.654 -40.149 55.7102 -0.9965 -0.0079861 0.0766334
25.3383 -59.2188 9.70353 0.935883 0.0925377 0.0337419
-3.11951 -99.0575 29.04 -0.0919741 -0.985496 -0.13294
25.7614 23.1179 54.9245 0.99592 -0.0203587 0.0789456
24.8952 -96.9109 34.3625 0.939963 -0.33297 -0.0481793
24.4324 -6.10667 7.96188 0.655882 0.167898 0.693602
-10.2859 27.932 34.8092 -0.999452 -0.00887812 -0.00229482
-10.2169 73.1328 23.3998 -0.961606 -0.23753 0.0466471
-7.15836 36.9906 -8.00736 -0.06438 -0.193459 -0.962332
-8.52847 -10.5594 11.2638 -0.562386 0.0340736 0.80005
-10.5409 -47.4855 4.05002 -0.729306 0.467736 -0.0248886
-19.2551 4.25266 4.23 0.274351 -0.673483 0.674335
-17.9747 79.2592 0.542912 -0.962525 0.0526138 0.0837243
25.5027 -25.9665 40.7289 0.998771 -0.00269231 0.0187991
4.04687 -29.9178 0.230002 -0.052916 -0.417884 -0.902724
10.052 97.3519 24.8011 0.0213514 0.986957 -0.14854
25.4063 -8.65446 35.1829 0.999482 -0.0031479 -0.00161932
17.406 10.8135 -1.91233 0.387935 0.447648 -0.720059
25.7136 94.377 10.5691 0.113568 0.960928 -0.248811
6.14299 -82.3596 -14.4157 -0.249287 -0.0526457 0.965335
6.48107 -101.661 -13.8441 -0.511534 -0.69806 -0.435738
-7.69855 54.5844 19.7208 -0.6927 -0.0813581 -0.0663611
25.6421 -67.5515 48.7342 0.99778 0.000629604 0.0479469
25.7853 -15.4516 56.525 0.996061 -0.0135671 0.0821772
-7.69817 53.9294 11.2789 -0.615536 -0.0898822 0.685647
23.7242 -20.1732 64.9503 0.677295 0.00177719 0.730629
-10.5662 53.1287 50.1873 -0.99647 -0.0233067 0.0619822
2.91321 -88.412 -19.1233 -0.846138 -0.47082 0.161092
12.0437 82.5373 -5.71576 0.0224868 0.435678 -0.896761
-7.73548 15.5072 10.2551 0.981219 0.00119827 -0.169058
4.36795 -101.111 57.3458 -0.020228 -0.987819 0.14703
-9.31115 -71.3222 25.6592 -0.320029 0.597597 -0.674153
-19.2207 64.5795 1.31411 -0.896728 0.044289 0.425986
25.5808 -60.6091 45.195 0.998244 0.000997926 0.0348366
12.6663 43.4628 58.63 -0.323096 -0.065045 0.668622
-10.2117 64.2041 30.4156 -0.986651 -0.0168222 -0.0888689
-10.5544 22.6214 49.7766 -0.996899 -0.0168108 0.0575966
18.5385 97.8633 29.3253 0.0946088 0.985045 -0.120895
24.8516 -41.8992 -4.66738 0.622203 0.577228 -0.258676
0.699355 -92.0684 66.0884 -0.0471333 -0.128578 0.988095
-7.6986 -40.3132 20.4919 -0.688352 0.0552037 -0.140533
-10.4306 -66.0127 43.0411 -0.998547 0.00276613 0.02667
6.98369 -97.4903 -13.5851 -0.232177 0.722425 0.620268
1.24878 98.3165 32.0134 -0.0552184 0.98908 -0.113836
8.78778 -101.003 4.60228 -0.569393 -0.798251 0.0439448
25.3473 -30.3163 31.5367 0.986851 0.00963672 -0.0767496
-10.3835 -24.4784 59.8655 -0.981704 -0.00353332 0.158122
-20.0135 -2.57408 2.37418 0.489893 0.374334 0.0560145
-5.6067 -100.892 53.1589 -0.120606 -0.991107 0.0222298
-10.2286 -52.6677 31.038 -0.978125 0.0186609 -0.120212
22.2304 69.68 -7.99201 0.0590639 0.0312582 -0.996221
-12.8841 -17.1552 0.230001 -0.383811 -0.306197 -0.859166
-0.985481 90.1003 0.796456 -0.0541777 0.810762 -0.577055
24.6203 -12.0042 7.88986 0.674188 0.254586 0.665642
7.65487 -100.664 -4.73284 0.359676 -0.889941 -0.0481398
0.95028 36.3311 -8.15173 0.0103425 -0.299262 -0.941807
1.04697 35.0247 -8.15425 0.0137786 -0.316016 -0.938926
25.6227 -0.671541 47.4989 0.997598 -0.0105282 0.0461135
14.8729 -41.509 58.63 -0.460785 0.184315 0.648097
-12.9722 93.8009 9.17241 -0.248924 0.926788 -0.267555
3.55641 -92.7243 0.496877 -0.738221 -0.578318 -0.329648
-10.6596 0.150945 55.7125 -0.996035 -0.0162052 0.0801904
-12.2547 87.7947 38.69 -0.947097 -0.27191 0.134352
-10.2879 -47.3177 34.8133 -0.999618 0.00321018 -0.00375827
-8.27383 -14.5577 11.2743 -0.599873 0.0371208 0.775287
-7.87111 -41.8222 -7.42865 -0.288973 0.248248 -0.883532
25.4551 -8.96239 38.0053 0.999101 -0.004281 0.00893824
25.6655 62.975 49.3619 0.996514 -0.0247559 0.0594257
2.70548 97.2158 24.1209 -0.041532 0.985255 -0.149312
6.70257 97.5804 26.1938 -0.00730762 0.988717 -0.143931
29.2845 -4.99101 7.73 0.129337 0.38594 -0.885332
-23.8928 0.908656 4.22386 -0.918944 0.048563 0.0279354
1.24188 -20.2944 58.63 0.399287 0.122057 0.653222
19.3116 51.9726 66.0236 -0.554855 -0.0653077 0.783913
12.3879 59.8596 58.63 -0.305861 -0.113163 0.672582
25.4949 -48.3542 40.2471 0.998885 0.00110366 0.0165574
26.6342 93.5341 53.715 0.971021 0.145605 0.182748
25.4162 74.0091 29.1497 0.997555 -0.0578897 0.00964656
14.5727 -30.9706 58.63 -0.442024 0.153388 0.650642
10.2423 91.3786 2.50803 0.0161518 0.856015 -0.514695
-3.89775 -6.75943 58.63 0.723692 0.0823366 0.656492
19.7872 -46.1791 1.26379 0.146225 -0.0577071 -0.96705
6.12395 -66.9788 -14.2266 -0.121279 0.226106 -0.80451
17.2828 -55.573 58.63 -0.613068 0.225587 0.6447
16.4587 -90.1442 -2.1822 0.441818 -0.631709 -0.547571
9.07086 99.4812 43.6369 0.0126897 0.996793 -0.0673984
4.12657 24.6076 0.229998 -0.059684 0.515203 -0.843789
22.8691 59.15 11.2901 0.679103 -0.100328 0.72281
25.4438 60.6619 37.2287 0.998835 -0.0161478 0.00899545
0.099051 -35.0666 1.23647 0.000144529 -0.00146513 -0.999999
-0.437102 -32.4166 -4.0694 0.101461 0.92811 0.348823
-7.33108 -84.2616 65.7126 -0.336072 0.000489788 0.930832
22.8116 38.1363 20.6493 0.692374 -0.0580911 -0.15339
4.74113 95.3283 13.4232 -0.0206291 0.975646 -0.211908
25.568 -61.7167 -0.133732 0.85789 0.216014 -0.112144
-8.36485 29.8532 26.6933 -0.604399 -0.0268749 -0.772916
19.0468 64.2357 62.2964 -0.687392 -0.118372 0.713695
-9.28031 -99.2726 50.5523 -0.779539 -0.618865 0.00964604
17.9352 47.9912 58.63 -0.656898 -0.0783334 0.669716
-8.23593 -10.2169 8.99628 0.783537 0.000383037 -0.613981
22.8117 -20.3883 22.5906 0.690327 0.0219623 -0.336519
-10.2395 -7.09979 0.230001 -0.542942 -0.146789 -0.781595
3.67682 -52.6655 -22.7166 0.530826 0.719661 0.380905
23.9668 -79.7022 -5.85995 0.798487 -0.131397 -0.572966
21.3354 75.2633 65.9756 0.0616883 -0.00213455 0.965482
11.3832 -55.2771 -21.3226 -0.80771 0.484136 0.288369
23.1367 27.0617 4.9022 0.675927 0.563095 -0.23648
-10.4515 17.3587 7.77087 -0.496794 0.193499 0.819617
3.15649 -76.4049 -21.9902 -0.595646 0.741791 -0.270783
22.8111 -0.0713808 13.4796 0.686539 -0.00159413 0.514381
-8.55779 -97.9749 28.7322 -0.645577 -0.754989 -0.109157
19.0393 38.2566 63.1424 -0.676986 -0.040372 0.716662
-7.69821 46.2306 14.4614 -0.688868 -0.0810369 0.421672
25.4679 35.0038 38.7473 0.998843 -0.0119341 0.0130243
3.59631 -48.6375 -12.8881 -0.702129 0.5407 -0.381143
-3.91741 7.60266 65.141 0.630897 0.032549 0.754336
25.6227 -42.319 59.2082 0.987616 -0.00366582 0.128438
-10.2271 -44.7659 9.53558 -0.871586 0.176611 0.000252809
31.2976 87.4441 14.5357 0.983631 0.0337848 0.0959008
-10.4088 -59.3993 41.7896 -0.998701 0.00222801 0.0221157
4.47369 86.5928 -3.14471 -0.0212827 0.63788 -0.765716
25.302 -15.8885 28.4244 0.95224 0.0250959 -0.253596
-14.9743 56.8048 5.1632 -0.657187 0.0200906 0.753134
25.6913 -71.1466 51.5702 0.997405 1.85008e-05 0.0584912
-7.73835 -1.41811 10.162 0.930092 0.00510876 -0.153419
24.5575 15.3849 26.7431 0.475984 0.0107653 -0.86364
-10.8611 27.4104 -0.732742 -0.902506 -0.397302 -0.120028
25.5542 -31.945 5.6323 0.72303 0.501753 -0.237962
-3.9107 -15.59 63.516 0.650875 0.10011 0.72782
20.5996 -26.1561 65.9927 -0.136369 0.0820968 0.912136
-14.672 -2.30918 1.83495 -0.533966 0.327184 -0.157838
4.59307 -26.6609 58.63 0.187825 0.14074 0.651684
6.55212 -100.084 9.18011 0.484975 -0.814866 0.309177
5.6023 -102.914 0.606387 -0.969077 -0.199393 -0.00105841
23.0366 -39.2136 -7.39545 0.273452 0.271645 -0.88812
-0.216217 74.2669 -7.91214 -0.0435184 0.112665 -0.989846
-2.38555 -45.3217 58.63 0.627401 0.195502 0.647179
28.5523 92.4992 39.3889 0.981911 0.0546983 0.117875
25.3076 64.9391 29.3073 0.974514 -0.0238737 -0.161333
3.00339 -67.5222 63.1304 0.0480078 0.707339 0.699533
19.0127 -53.782 65.6148 -0.584757 0.178073 0.783726
-9.96594 4.49382 0.23 -0.568046 0.0999243 -0.770828
8.80933 -100.385 39.9149 0.013397 -0.995355 -0.082984
11.5484 -102.099 -2.66861 0.962459 -0.241495 -0.0289313
-1.28217 40.382 -8.1096 -0.0178139 -0.223969 -0.955313
9.74622 -28.6977 0.230002 0.0398726 -0.442726 -0.88787
13.5808 -93.5938 3.43693 0.614727 -0.685235 -0.292028
25.6468 -47.1755 49.0359 0.997695 -0.00276797 0.0494754
6.7353 69.7513 -8.23389 -0.00277388 0.0295922 -0.995963
2.2549 -59.4358 -22.0337 -0.919853 -0.0288689 -0.377312
-10.5004 -30.4069 47.1283 -0.997915 -0.00466709 0.0426672
-9.89182 -56.5606 -3.61624 -0.780561 0.306922 -0.233207
11.578 -16.4022 0.230001 0.158781 -0.621914 -0.756005
19.4161 -71.8434 66.0191 -0.316089 0.274586 0.834743
-22.8051 -9.01354 5.20401 -0.877487 -0.255083 0.179911
-7.95285 21.1326 9.50953 0.908966 0.00319215 -0.392419
-14.4912 40.0643 -7.87528 -0.136809 -0.0682231 -0.985923
-8.61973 14.673 26.7016 -0.568295 -0.00399117 -0.796676
25.5351 -21.8007 42.6086 0.998507 -0.00414869 0.0259163
7.66276 41.0203 1.25655 0.0239052 0.188077 -0.966617
11.5538 -97.7038 2.92234 0.851277 -0.413022 -0.143043
3.58557 -57.1409 -11.8202 -0.727652 0.380567 -0.439096
-10.2087 36.7431 60.7873 -0.972884 -0.0106439 0.203454
25.4377 -73.3996 60.1828 0.984067 0.00308182 0.153806
25.4463 -59.387 37.4221 0.999292 0.0040585 0.00576779
-13.4011 89.9614 37.797 -0.972476 -0.170702 0.133138
-10.282 -2.2234 8.4576 -0.79369 0.160069 -0.411633
-10.2681 -75.2065 33.6287 -0.99984 0.00818729 -0.00873979
-3.89936 -54.8143 60.8079 0.683828 0.214093 0.683813
-10.6223 79.3334 50.6248 -0.996237 -0.0357198 0.0589072
-7.69817 68.7303 17.9789 -0.704744 -0.430831 0.178137
9.55093 -102.472 2.65543 0.987296 -0.0994129 0.00311363
13.833 -91.205 66.0997 0.0595046 -0.100308 0.988296
-1.18019 22.0421 0.229998 -0.182416 0.504838 -0.829771
14.3532 49.5518 58.63 -0.430082 -0.0829137 0.670093
27.5065 19.1457 0.302068 -0.4987 -0.391428 -0.759867
-11.174 59.1461 8.99199 -0.799944 0.00414934 0.599634
25.3285 -64.8385 30.0645 0.964965 0.0288836 -0.185661
-7.69852 -42.7765 19.2289 -0.687667 0.0620206 -0.0222584
29.2974 35.9636 6.1703 0.645731 -0.047327 0.760878
-10.2498 -2.61993 9.10047 -0.83873 0.163268 -0.159381
9.70388 90.8674 66.1714 0.0145237 0.129056 0.990146
-14.3877 88.583 29.4042 -0.970603 -0.165706 0.143407
4.73425 79.1451 66.1698 -0.0290105 -0.232584 0.877955
-10.5133 33.4858 47.4367 -0.997217 -0.0174588 0.0488671
18.5367 -11.8098 -1.12403 0.62766 -0.643126 -0.409454
-10.2221 -74.5448 29.9095 -0.982601 0.092441 -0.092276
23.2894 14.9073 3.36953 0.582263 0.56903 -0.491767
-10.2918 -85.6064 6.33177 -0.98603 -0.104157 -0.0810123
-17.4562 17.0213 0.335686 -0.390239 0.266716 -0.853786
9.36732 -50.2742 -15.6681 -0.666007 0.669849 -0.279871
24.5632 23.5895 7.92424 0.579175 0.28765 0.759274
-2.37226 59.9113 -8.0787 -0.0581345 0.00350357 -0.993866
22.0436 -99.2586 31.9429 0.243291 -0.959558 -0.118606
25.5846 40.4846 45.0993 0.997579 -0.0173113 0.0398011
25.4411 2.20089 37.2085 0.999184 -0.00573931 0.00617475
-10.4378 -84.0506 30.3719 -0.999174 -0.00913378 -0.00197895
-13.1628 92.7458 6.21242 -0.226861 0.901591 -0.352035
10.0948 45.3883 -8.21822 -0.0184456 -0.233062 -0.952028
-10.4836 -46.9275 46.13 -0.998087 -0.0015945 0.0386061
-12.7977 29.7491 2.79304 -0.670774 -0.732397 -0.0159355
22.9691 -28.6482 7.65929 -0.744795 0.659236 -0.0203525
20.0682 32.2793 -8.04146 -0.00793971 -0.253079 -0.955
23.9183 -72.0176 20.1177 0.427801 0.826474 0.196697
-1.3446 25.9402 0.229998 -0.149166 0.463543 -0.866401
13.944 -89.0288 -3.39197 0.575186 -0.520102 -0.557172
2.27854 -98.6432 25.503 -0.0605308 -0.983615 -0.149901
20.336 -94.8704 64.4207 0.225989 -0.656867 0.713169
33.7891 56.2499 -6.69769 0.700289 0.0325868 -0.704152
16.422 -83.2213 -6.71298 0.462249 -0.266355 -0.784718
-9.16933 -2.79588 11.2375 -0.467955 0.0304401 0.862431
-17.3014 39.882 3.85906 -0.712974 0.00407308 0.666309
18.016 68.919 66.0447 -0.123299 -0.477538 0.823472
-2.18739 7.18722 -2.27 -0.281718 0.216594 -0.90772
-7.69891 64.827 25.28 -0.696831 -0.0835359 -0.582148
-14.5619 90.5665 29.7834 -0.981453 -0.0108035 0.114592
25.2787 -2.75827 10.8379 0.900021 0.0189868 0.391942
25.6999 78.6667 39.7199 0.997854 -0.0621193 0.00431653
28.9428 -19.0022 0.230001 -0.412562 0.237972 -0.492432
25.3899 -16.3399 8.50467 0.835556 0.259581 -0.314998
-13.2846 93.5815 39.3306 -0.980636 0.167656 0.0965587
10.338 97.711 61.2695 0.0253844 0.768291 0.638256
22.8113 48.5757 16.0748 0.690033 -0.0808524 0.271953
9.50231 26.7362 0.229998 0.037003 0.483679 -0.865075
-10.5884 35.122 51.5403 -0.996422 -0.0205413 0.0659981
-10.3298 -50.0694 37.2301 -0.999297 0.00263956 0.00523357
-10.3227 -72.429 36.7907 -0.999406 0.00641609 0.00314955
23.425 42.7863 -7.98331 0.0862592 -0.110405 -0.976814
3.56935 -66.5956 -9.89966 -0.726694 0.161185 -0.571829
25.3286 -92.9613 25.2863 0.983112 -0.172528 -0.0368659
11.5884 -75.2548 66.1533 0.0443118 0.436961 0.813252
-10.1792 -68.8026 27.4764 -0.934134 0.0490465 -0.340516
2.95355 -50.116 -8.1852 -0.350981 0.244851 -0.884953
-11.5013 72.7698 11.6856 -0.905268 -0.315596 0.275539
3.77065 63.4802 -8.18511 -0.0173296 -0.00941934 -0.990247
25.7746 79.7552 45.7364 0.997595 -0.0522403 0.0178008
18.4456 -67.1254 64.3444 -0.395468 0.511458 0.750827
32.7447 82.2278 -1.04114 0.965875 0.181195 -0.079167
9.36713 -76.4163 -24.7254 0.234739 0.736452 -0.620557
-7.19572 -30.8987 -4.6373 0.751222 0.603214 0.230801
19.4892 33.0921 66.0193 -0.486482 -0.00867429 0.807064
25.7911 71.4352 56.18 0.995127 -0.0310533 0.0883943
-10.5177 67.8719 47.4156 -0.996825 -0.0244563 0.0518066
-10.6043 -71.308 2.99993 -0.975904 0.0310348 -0.046205
3.55626 -87.335 -5.84316 -0.747114 -0.327356 -0.557933
19.0448 57.4333 63.3308 -0.675732 -0.0962561 0.723352
17.5988 27.2705 0.230269 0.135718 0.319617 -0.919067
14.6107 7.93021 -2.27 0.196022 0.246784 -0.904278
-10.1635 -97.0792 49.1586 -0.964338 -0.251784 0.00489692
3.55662 -72.1841 -8.26148 -0.70348 0.0029083 -0.698146
13.5086 30.8069 -2.25252 -0.180851 -0.947936 -0.173418
-10.5126 -83.876 21.4874 -0.998724 -0.0231543 -0.0137551
2.93569 -69.4927 -8.17718 -0.624653 0.0284772 -0.743838
25.6491 -64.0386 49.1398 0.997718 -0.000104292 0.0495338
9.48133 -101.98 -7.19865 -0.95493 -0.257814 -0.0366761
-10.529 -44.4419 59.1079 -0.988509 -0.00380695 0.123969
33.5683 67.5583 1.76479 0.851867 0.0381502 0.480761
25.7467 -32.3211 2.31526 0.559581 0.758824 -0.041221
25.5144 -83.0748 37.3271 0.99876 -0.00975286 0.0146389
10.7801 29.8612 58.63 -0.203305 -0.0251297 0.665336
-0.681812 -67.4552 63.1386 0.0905362 0.692125 0.711665
25.2808 66.5275 27.5681 0.955544 -0.0353348 -0.274824
-2.85384 -16.9217 0.230001 -0.323359 -0.504531 -0.784539
5.18117 -49.2746 -25.1875 -0.315123 0.518796 -0.723127
28.6089 15.8741 7.73549 -0.118629 0.147795 -0.416219
4.04223 -61.8464 -24.2565 -0.561086 -0.378215 -0.684042
28.7688 77.8863 11.5278 0.868674 -0.389838 0.301627
27.072 34.6873 -7.91986 0.0817945 -0.162498 -0.970548
25.6589 -87.4898 13.6995 0.995035 -0.0818071 -0.0352111
-11.7017 6.21141 7.74296 -0.574976 -0.0684622 0.775939
25.6029 -44.079 59.3097 0.986769 -0.00273534 0.132561
3.75181 -42.9255 -8.20343 -0.242277 0.312318 -0.90634
23.3442 -25.2349 26.6865 0.617893 0.0427852 -0.764079
5.12953 77.867 66.1778 -0.0249466 -0.280878 0.860886
13.5936 -21.4989 0.230002 0.195485 -0.520478 -0.815223
-3.31568 65.8747 59.0612 0.410968 -0.59107 0.655897
-9.5291 48.9348 11.2125 -0.46016 -0.0317544 0.875159
3.55623 -93.9118 3.33329 -0.740432 -0.604333 -0.263738
25.426 -41.3301 7.96057 0.85596 0.279905 -0.245989
11.5398 -82.5056 -13.3915 0.902017 0.161985 -0.205701
7.27181 -100.329 59.502 -0.00256994 -0.863676 0.493007
25.4643 -72.8762 38.4443 0.999183 0.00579575 0.00932959
23.7225 -27.5806 7.7363 0.753771 -0.472901 0.246802
13.8278 -96.8001 15.0524 0.51192 -0.823623 -0.0710472
5.09905 59.4258 -8.21119 0.00264679 -0.0738357 -0.978873
22.6924 11.7978 9.90105 0.955655 0.0639173 0.234457
25.3991 16.4604 8.4414 0.741518 0.0283676 -0.52139
-10.4654 -81.928 4.21314 -0.991192 -0.0709629 -0.0725208
24.8761 17.6988 63.1003 0.95588 0.0033143 0.291953
25.5656 -33.5466 44.3605 0.998297 -0.00299701 0.0322431
25.3352 -69.5073 30.5162 0.969688 0.0266246 -0.161934
-8.39688 -17.2892 8.82627 0.715192 0.000292878 -0.687165
13.8678 62.1498 58.63 -0.399646 -0.119884 0.673136
25.7122 78.7834 49.0714 0.996556 -0.0354227 0.0515148
4.3114 -32.4398 -6.74744 0.0869689 0.907866 -0.396757
-3.93036 52.3627 60.7499 0.703887 -0.0867506 0.69393
-1.97843 35.1756 58.63 0.603694 -0.0407268 0.666619
25.7235 -50.3524 53.4045 0.997053 -0.0043577 0.0661886
-5.32263 92.3996 4.85026 -0.0791828 0.902837 -0.417084
11.5555 -86.8264 -9.82078 0.825438 -0.0853757 -0.477381
18.7974 -98.896 60.1623 0.196297 -0.784748 0.583354
-3.93041 52.5236 65.8178 0.643438 -0.081081 0.754173
28.9891 81.516 17.256 0.905345 -0.336654 0.222858
7.07741 -52.4952 -18.165 -0.479314 0.439472 -0.622228
34.6907 35.4365 1.94937 0.816941 -0.234067 0.499185
-10.2148 5.57633 30.3089 -0.977126 0.0101808 -0.126293
-7.93281 50.6281 26.6783 -0.664176 -0.0594998 -0.733275
3.56222 -102.456 6.19118 -0.979749 -0.193944 0.0320708
-9.9372 -55.9411 62.2162 -0.970278 0.00654575 0.230263
-5.85761 54.9399 65.9841 0.0384498 0.0258502 0.938315
18.6715 87.0865 -2.55269 0.0590606 0.667534 -0.738423
-7.29366 -89.899 -1.70879 -0.438251 -0.674346 -0.58292
25.348 -62.6554 31.4498 0.981603 0.0180131 -0.102419
12.2484 -97.2252 17.0495 0.12807 -0.928476 0.285643
25.483 -95.1661 54.1959 0.980578 -0.175671 0.0826308
-10.2654 28.5494 10.6214 -0.86843 -0.0352296 0.474678
22.8114 -45.3815 17.4872 0.686754 0.0700317 0.140815
25.6041 -73.3133 46.5284 0.998091 0.00247879 0.0395783
-7.73611 -98.3038 58.314 -0.584639 -0.68085 0.429723
27.7479 -24.8023 4.61034 -0.618788 0.561662 -0.142729
16.9707 -100.485 43.143 0.12642 -0.984933 -0.0679687
-10.5851 49.6744 51.2519 -0.996309 -0.0233155 0.0660852
9.98658 15.0668 58.63 -0.152692 0.0182858 0.661762
4.07051 -38.6134 -8.20903 -0.116552 0.340077 -0.916991
25.6831 -11.3814 50.8939 0.99708 -0.0106209 0.0592248
2.31734 99.699 49.3079 -0.0498291 0.995451 -0.0337934
-11.0401 59.9444 -7.92748 -0.0904741 -0.00176029 -0.992765
5.98555 -69.3633 -15.5785 -0.299451 0.471876 0.806268
-8.61613 -89.4515 64.9426 -0.67604 -0.0580476 0.73233
1.60525 72.2242 66.1199 -0.051223 -0.41487 0.828098
29.775 93.6794 18.0573 0.877178 0.455067 0.00580916
29.5341 91.4038 29.9895 0.980807 0.0742834 0.0991283
25.6797 73.7013 58.9496 0.98814 -0.0285164 0.129341
8.79069 -100.985 0.256095 0.595872 0.795587 0.0120705
-6.07397 29.7958 3.39525 -0.666392 0.352404 -0.556125
25.4796 40.4241 39.346 0.998667 -0.0134409 0.0159797
-8.11364 -32.5158 -7.27612 -0.241143 0.332702 -0.897725
25.3529 -83.8533 4.00436 0.984531 -0.104218 -0.0924893
-10.2529 -38.9267 32.8036 -0.999871 0.00270414 -0.0111152
12.1402 99.8892 57.2476 0.0213858 0.990758 0.127408
25.8184 59.5373 57.7696 0.994963 -0.0296931 0.0939276
-1.18087 -29.7283 58.63 0.551821 0.149742 0.650944
-10.009 -97.6401 51.1766 -0.948215 -0.302885 0.040709
20.6092 -99.3294 31.675 0.124041 -0.984176 -0.119858
-16.911 85.0607 8.63373 -0.973345 -0.0304827 0.138229
-10.4516 -84.8435 40.094 -0.99842 -0.0190812 0.0202376
22.8114 -52.9235 16.9869 0.68624 0.0842583 0.187876
-10.2 71.6806 20.0297 -0.941442 -0.292289 0.0985925
17.4591 17.9379 0.230663 0.24229 0.349309 -0.854424
6.56853 21.9118 0.229998 -0.0327565 0.565843 -0.812626
8.21519 82.3137 -5.89861 0.00330267 0.423544 -0.903581
-10.7094 45.5725 -7.93903 -0.113359 -0.0481818 -0.988156
7.76806 49.8487 1.27945 0.00681219 0.0554228 -0.990497
-3.91787 9.19074 58.7474 0.724059 0.0357734 0.661627
2.73246 -49.9523 58.63 0.304576 0.209092 0.64606
25.3831 -10.01 33.838 0.999667 -0.0023668 -0.00667951
-4.65836 45.9658 -8.04623 -0.0593321 -0.116574 -0.974637
-7.69884 58.6901 24.2114 -0.695802 -0.0776935 -0.483201
3.5611 -97.0573 -3.46858 -0.840356 -0.429547 -0.204924
-10.6556 24.0244 55.3112 -0.995836 -0.0208044 0.0806306
37.9043 7.89157 1.49106 -0.894267 -0.255586 0.327334
-10.4128 -16.2445 42.0793 -0.998567 -0.00482684 0.0240479
-10.5344 39.0109 48.551 -0.996942 -0.0193319 0.0539663
-7.69806 8.13646 12.2096 -0.686243 -0.0134955 0.632957
25.5459 -80.8253 42.9716 0.99871 -0.000376778 0.0234304
22.8117 42.9997 22.699 0.693959 -0.0603085 -0.343502
-9.24579 25.7298 26.7362 -0.503733 -0.00535224 -0.845264
18.2519 -91.2514 66.0225 0.0798537 -0.105287 0.987766
25.0147 97.9088 30.6867 0.152556 0.981672 -0.110479
-7.69831 -15.401 16.0375 -0.687176 0.0202659 0.27551
-1.54949 5.18389 58.63 0.575915 0.0472876 0.659376
7.51799 -101.044 50.6399 -0.000274323 -0.999217 -0.0342618
2.69039 -49.7613 -16.8428 -0.690061 0.481273 0.424336
-10.5566 29.4962 49.8425 -0.996808 -0.0182569 0.0584749
-7.6987 46.0392 21.9861 -0.693669 -0.0656943 -0.277151
-4.61217 -8.28924 -2.27 -0.353758 -0.222523 -0.902811
24.2551 99.2642 46.6193 0.252081 0.959643 -0.0203917
-10.494 -55.1824 46.7226 -0.998025 -0.000516522 0.0406618
-10.5576 18.4077 49.9813 -0.996909 -0.0160888 0.0580731
-9.62559 -71.1837 -5.1246 -0.920406 0.0339912 -0.300327
23.3147 -16.6907 8.75256 0.856829 -0.137965 0.467025
-19.8243 57.2776 0.0555116 -0.915055 0.0593379 0.316223
6.20064 -98.4669 61.8843 -0.0154298 -0.753411 0.655418
6.09991 -53.6375 58.63 0.0921544 0.219907 0.645169
-10.612 -38.3249 53.3939 -0.996917 -0.00680642 0.0672056
18.104 -34.2443 0.0954831 0.347103 0.879607 0.231499
-9.75065 -17.6962 8.09816 -0.109331 0.119181 -0.771809
-10.5295 -24.0186 48.765 -0.997627 -0.00662287 0.0493039
-4.2682 42.0076 1.25584 -0.175382 0.0685288 -0.960495
24.4496 -86.773 -1.53954 0.955194 -0.188262 -0.22233
-5.73838 -49.1012 65.9868 0.0698936 0.0635868 0.929151
11.6779 -61.3741 -8.19119 0.538132 0.119296 -0.788374
25.5418 -42.0526 42.9669 0.998504 -0.00104754 0.0268604
-0.394234 14.4256 0.229999 -0.289917 0.578996 -0.752089
-10.6815 -27.8223 57.1266 -0.99609 -0.0114485 0.0835816
14.7231 -2.05133 58.63 -0.452251 0.0685215 0.657628
-0.0782558 30.4578 -0.169479 0.19258 -0.96696 -0.0706789
9.48176 -101.465 9.64322 0.961083 0.172945 -0.0709295
26.995 79.2599 21.6787 0.911762 -0.361387 0.192493
22.8022 2.04242 9.53191 0.93787 0.0212702 0.281698
-10.351 35.6633 38.5241 -0.998877 -0.0119325 0.0121657
-10.2911 -1.57801 8.27907 -0.779717 0.155409 -0.484653
25.4894 59.081 39.74 0.998378 -0.0175095 0.0192524
25.3425 -76.3102 23.0775 0.992936 0.0645044 0.0244556
-0.391178 -38.5679 1.24558 0.000161299 -0.00167125 -0.999998
25.1424 -88.5501 7.35097 0.976666 -0.166651 -0.0917365
-10.3473 -56.0164 7.55016 -0.863353 0.248885 -0.0243145
20.6129 -25.3741 65.9924 -0.132713 0.0810428 0.913126
-7.74103 21.6139 10.1642 0.975554 0.00119814 -0.196733
8.78411 -49.2745 1.27495 -0.0057163 -0.0877894 -0.983743
25.3624 -49.6158 9.16643 0.906919 0.165693 -0.119347
6.27162 -57.5408 -25.5035 -0.222594 0.0413321 -0.916402
24.6515 87.9936 63.9449 0.861967 0.0525236 0.491403
9.35599 -101.153 8.88213 0.893418 0.424405 -0.125147
6.0144 70.9541 66.199 -0.015849 -0.52301 0.77875
-3.90532 -34.1973 59.924 0.709276 0.165551 0.664003
9.77477 -35.8021 58.63 -0.139126 0.167567 0.649476
13.6192 84.9758 66.1077 0.0623308 0.00962256 0.967503
22.2143 -53.3509 -7.79953 0.196375 0.1448 -0.944517
-7.69859 -64.6489 20.4187 -0.68742 0.0980664 -0.132886
25.3206 67.9096 11.8202 0.881248 -0.291774 0.357594
22.8116 58.1154 20.5125 0.693409 -0.0843648 -0.139713
-2.65309 87.4724 66.0274 -0.0734939 0.0893299 0.98902
25.6618 -27.6374 49.8475 0.997464 -0.00660432 0.0534627
25.0554 -95.6453 31.2154 0.957952 -0.272235 -0.0449477
-20.3396 6.25114 0.23 -0.133348 -0.155042 -0.851473
-7.69866 40.6323 21.4744 -0.693038 -0.0596845 -0.229897
9.37047 -101.676 3.68277 0.886619 0.457156 -0.0318175
23.8091 46.9908 11.2527 0.542108 -0.0626636 0.813792
33.5811 12.7567 0.230162 -0.75549 -0.307804 -0.336297
26.4285 88.0866 52.2695 0.991359 -0.0436272 0.111882
25.4076 -45.4844 35.2057 0.999561 0.00275524 -0.00225554
-12.0449 -17.4463 0.230001 -0.384736 -0.319606 -0.853397
7.36874 0.271482 -2.27 -0.0121769 0.0187132 -0.907948
25.5475 -54.712 5.99741 0.816702 0.321976 -0.00406388
25.7195 -29.1854 53.0219 0.996882 -0.00841741 0.0664674
-5.58383 14.7593 65.9905 0.10737 0.073124 0.920924
-10.3414 -32.7842 37.9302 -0.999164 -0.000430942 0.00819366
20.7303 -98.7619 59.4909 0.303726 -0.779797 0.544262
29.814 93.6315 15.9954 0.838149 0.540338 -0.0296142
10.8566 -46.1185 -16.1419 -0.235937 0.801817 -0.465021
25.5803 42.7437 44.8469 0.9976 -0.0176027 0.0389551
-7.69893 62.5778 25.6483 -0.69694 -0.0798703 -0.616459
22.8115 62.8206 18.2919 0.692253 -0.0949422 0.0667407
25.3599 -30.0463 32.4329 0.997466 0.00287679 -0.0236195
-10.3042 39.377 35.8825 -0.999281 -0.0111667 0.00194728
18.6725 98.4843 59.156 0.172196 0.823106 0.536273
-12.4529 77.8983 16.4271 -0.898795 -0.37547 0.224128
-9.61292 -3.17327 7.8552 -0.489009 -0.00744744 0.820108
32.0331 51.8386 -7.74402 0.234825 0.00391759 -0.968761
-10.4745 41.609 45.2487 -0.997537 -0.0176495 0.040525
-0.382694 94.0457 8.87497 -0.0530279 0.950683 -0.297535
5.9179 45.7832 -8.23376 0.0119044 -0.23001 -0.952548
-7.69842 55.4041 17.6728 -0.691437 -0.086533 0.123881
-7.53926 -30.2361 -2.65866 0.78785 0.594779 0.132923
33.6887 61.2341 -6.46477 0.759278 0.0497394 -0.644788
3.46904 -55.098 -19.8973 0.910678 0.411771 -0.00842889
-8.9122 42.2132 11.2446 -0.508808 -0.0517727 0.835579
14.7098 -97.6779 19.8055 0.0996774 -0.957828 -0.0302771
6.07575 -64.7673 -14.2282 -0.125363 0.271737 -0.795095
36.0377 41.1586 -0.644027 0.928226 0.0147153 0.255333
28.8712 90.7469 37.7866 0.981098 -0.136431 0.132706
22.8117 -19.3664 22.4042 0.690265 0.0202585 -0.319156
-7.69818 45.8053 14.1339 -0.688634 -0.0811404 0.452066
24.4923 -59.0319 26.7236 0.454701 0.10043 -0.87042
-21.9623 -11.511 2.55052 -0.859166 -0.318391 -0.211466
-9.97582 -24.1145 61.9986 -0.967467 0.00375806 0.236593
-8.29787 69.7592 16.5832 -0.601593 -0.727719 0.257435
-2.07574 -45.0099 58.63 0.607874 0.194587 0.647254
17.6352 -19.4126 58.63 -0.636263 0.11947 0.653435
1.65268 -42.1194 -8.16651 -0.215445 0.307943 -0.908711
-9.40875 -51.7485 -5.73133 -0.660316 0.379614 -0.405948
10.0629 43.3178 1.26232 0.0193859 0.153535 -0.972833
9.01506 44.8776 -8.23743 -0.0106001 -0.239867 -0.95091
25.3301 -42.9395 30.2675 0.970221 0.0221341 -0.159758
6.83651 55.446 58.63 0.0458303 -0.100212 0.671515
22.8119 28.3583 25.4778 0.694915 -0.0356811 -0.602285
-3.90719 -27.751 65.6169 0.600114 0.114946 0.775496
2.7448 75.0827 66.1377 -0.0494637 -0.336673 0.850075
2.28654 -94.4141 5.48789 -0.655054 -0.68361 -0.241033
-10.3225 2.95114 36.8844 -0.999227 -0.00573413 0.0049815
23.0186 13.5978 9.58402 -0.917845 0.000186233 -0.371563
-17.2164 84.683 -0.564448 -0.945782 0.272944 -0.155238
2.50531 96.7081 20.9252 -0.0413647 0.983088 -0.16433
25.7365 -46.7408 2.55742 0.713122 0.490332 -0.0425942
-8.26853 -79.056 -6.63251 -0.648465 -0.130163 -0.744004
-2.16761 58.5304 -8.08282 -0.0597465 -0.000708545 -0.993473
-13.8487 92.1696 35.3368 -0.98144 0.0686501 0.106267
-9.81979 3.60704 11.2099 -0.374012 0.0168048 0.924126
-7.69866 53.2304 21.4556 -0.693733 -0.0761163 -0.227542
22.3377 35.1856 -8.00729 0.0615023 -0.214217 -0.958814
-8.82051 -33.0892 64.7466 -0.730409 0.00263718 0.679034
4.7599 -93.2661 -14.2487 -0.155385 -0.0135451 -0.94519
-10.262 -41.4683 8.84865 -0.874423 0.226291 -0.206096
-18.828 67.6625 -5.27046 -0.926129 0.0703245 -0.353742
28.2583 94.9084 14.8862 0.417667 0.891779 -0.141659
-3.92044 18.0598 59.639 0.714636 0.0116023 0.673509
-7.69853 -25.694 19.4368 -0.688395 0.0316243 -0.0422696
22.8111 -40.9635 12.8364 0.684728 0.0714564 0.575896
32.6472 49.7998 3.30211 0.647285 0.0282477 0.748982
-10.8258 98.4073 46.6824 -0.651457 0.753198 0.040405
-19.5244 -16.7284 6.65034 -0.779017 -0.478652 0.392965
-6.03141 -99.756 57.9177 -0.360897 -0.78365 0.501133
25.7903 -22.7259 56.8568 0.996082 -0.0123062 0.0829106
-7.75572 -70.3128 26.3135 -0.67459 0.316252 -0.661426
25.4064 -73.5028 35.0937 0.999638 0.00730024 -0.00322363
25.5145 -83.3687 36.4597 0.998713 -0.0078805 0.0169302
2.23553 -66.9423 -8.16302 -0.548433 0.0567285 -0.78325
1.16633 67.1336 -8.13754 -0.0324781 0.0283866 -0.996511
-10.5447 16.4533 49.2914 -0.997062 -0.0152281 0.0550452
-10.6173 -75.144 53.822 -0.997109 -0.000284204 0.0668414
19.0239 -15.0445 63.8927 -0.643387 0.0961618 0.735501
7.34415 62.0381 58.63 0.0135201 -0.119557 0.673108
-3.90354 -40.3659 60.331 0.702265 0.182388 0.669276
25.3537 0.660367 32.1197 0.997779 -0.00212122 -0.0226237
30.7593 53.3651 4.70617 0.637534 0.0224482 0.769535
25.57 47.6699 44.2465 0.997657 -0.0182047 0.0369034
27.0609 74.0646 -7.73193 0.105134 0.109032 -0.986782
13.1807 46.6127 1.27062 0.0129147 0.104003 -0.981747
7.55884 -99.4537 30.7553 2.38947e-05 -0.991966 -0.125195
-7.69899 42.3631 26.5477 -0.696379 -0.0517602 -0.700974
-3.43524 7.56921 -2.27 -0.314471 0.229068 -0.907864
24.5611 -98.7549 53.0635 0.864953 -0.472816 0.10652
22.812 -19.5628 26.0139 0.692564 0.0277551 -0.6544
23.7172 19.6158 3.50481 0.381367 -0.747472 -0.45349
4.34052 -100.089 36.9278 -0.0343753 -0.99266 -0.095843
19.0247 -12.3064 60.5637 -0.703178 0.102642 0.676276
24.3935 -46.3378 -6.00495 0.567803 0.475082 -0.473999
20.3905 98.509 35.004 0.110889 0.986796 -0.0960318
-7.69821 -29.167 14.4847 -0.685938 0.0474951 0.421262
14.3931 -63.2696 58.63 -0.431001 0.248174 0.642842
-10.6332 9.24581 54.1974 -0.996217 -0.0170448 0.074719
-17.4804 60.4535 2.95219 -0.705615 0.0329153 0.676698
-9.26262 -97.5067 30.9425 -0.820795 -0.563936 -0.0783415
19.4228 99.0669 40.6684 0.0994095 0.990257 -0.0721317
-10.5134 -90.6912 23.8346 -0.994672 -0.088053 -0.0231543
9.07778 -72.9044 -24.4089 0.270417 0.494489 -0.806411
9.44937 -98.2121 14.4293 -0.941892 -0.226776 0.191478
-7.6986 61.773 20.5744 -0.69365 -0.0890006 -0.145283
3.02113 -32.3335 58.63 0.286804 0.157387 0.650315
-10.4427 8.07826 43.7642 -0.998204 -0.00981785 0.0314286
-10.6072 -90.3728 42.7284 -0.998835 -0.037222 -0.00298497
-7.93498 19.3029 9.5378 0.912702 0.00230491 -0.384029
-10.5701 59.4309 50.3559 -0.996366 -0.0247048 0.063235
-10.2857 -53.3973 34.6807 -0.999649 0.00424253 -0.00437408
25.641 -35.8932 48.7167 0.997713 -0.00444548 0.0485015
-6.53311 66.5172 -8.00347 -0.0623159 0.0216821 -0.995338
31.9387 35.1026 -7.67089 0.192375 -0.238242 -0.947715
-15.3879 89.9145 19.982 -0.983188 0.163455 0.068297
-2.94592 87.3032 -2.38288 -0.0463419 0.678246 -0.730711
23.8625 96.9656 23.8227 0.138265 0.978873 -0.14045
17.9069 91.0574 2.26113 0.0636749 0.848836 -0.52
31.747 79.5485 7.00439 0.913604 -0.173149 0.328557
-7.69872 44.9781 22.3585 -0.693847 -0.0635663 -0.311793
-10.1953 -72.1259 16.7148 -0.974548 0.163809 0.0706659
17.1941 -96.8179 15.4299 0.351131 -0.900335 -0.108248
-10.6224 -86.7022 21.5118 -0.998391 -0.0426873 -0.0182791
25.3871 -45.4263 34.0158 0.999722 0.00324443 -0.00670775
-10.2328 -70.145 31.2628 -0.978494 0.0211613 -0.118037
-7.69861 -11.4031 20.6237 -0.68957 0.00632384 -0.153424
-8.80316 -27.8563 11.2535 -0.521883 0.0640211 0.826704
-23.7488 -3.66945 1.92177 -0.913389 -0.0860879 -0.297436
22.8113 56.6915 16.5085 0.690767 -0.0905437 0.232073
28.0353 80.3528 19.0078 0.892081 -0.392658 0.220566
28.3952 94.5737 36.8354 0.96071 0.25569 0.0748319
16.5797 7.7818 -2.27 0.251102 0.234836 -0.908502
22.4429 27.8278 4.83303 0.664212 0.570354 -0.318386
13.8592 66.2422 64.8493 -0.120542 -0.635363 0.750589
-0.438236 93.1358 6.3394 -0.0493498 0.924174 -0.372763
20.9936 48.653 -8.02287 0.0757321 -0.0697707 -0.982973
20.384 71.5295 -8.02347 0.0489738 0.038215 -0.99702
19.0128 -53.1782 64.757 -0.602903 0.18259 0.765646
22.8113 -39.8222 15.7536 0.686143 0.063695 0.302866
-2.67774 74.7258 66.0424 -0.0412921 -0.27229 0.888694
25.398 -79.5858 27.3807 0.999588 0.0176215 0.00248806
11.553 -96.5471 -12.8824 0.962255 -0.0349002 -0.1974
-7.69872 -39.177 22.4192 -0.6893 0.0494052 -0.320921
26.4367 83.8253 34.6349 0.942113 -0.307471 0.121702
31.7713 86.796 8.71434 0.980251 0.105492 0.0728253
24.3459 -5.08598 7.99627 0.649415 0.11632 0.704449
-6.87796 -66.8987 -7.85213 -0.221918 0.0315464 -0.957066
-10.2364 -16.0848 31.7474 -0.991228 0.00463857 -0.0551774
10.8301 84.1292 -4.89328 0.0124603 0.513543 -0.856148
25.6677 -40.9058 50.2492 0.997517 -0.00428285 0.0541392
-3.92346 28.5129 60.307 0.707738 -0.0176826 0.683332
2.70446 -50.5468 -8.17963 -0.342835 0.23996 -0.889192
25.4242 37.5256 36.2812 0.999232 -0.0110218 0.00339602
30.4085 82.5832 13.5306 0.935195 -0.241838 0.208203
32.5184 82.6355 -2.41243 0.916225 0.271239 -0.266723
12.6914 -14.7856 -1.81335 0.207734 -0.616416 -0.656195
22.8112 -19.5761 15.0042 0.686537 0.0296347 0.37234
-4.18534 99.6982 53.3117 -0.103239 0.989811 0.0553681
19.7348 -26.4701 66.013 -0.369971 0.148571 0.850171
20.7202 62.4332 -8.02125 0.0659174 0.00941279 -0.994211
19.0427 50.0109 63.1147 -0.677791 -0.0749241 0.719199
-9.73952 -55.824 63.1601 -0.714158 0.00571097 0.512874
14.2194 90.0061 0.611454 0.0422627 0.805931 -0.584994
12.172 -86.3509 -22.3604 0.86213 -0.191429 -0.453414
-1.59468 -56.1588 -8.08692 -0.216344 0.16338 -0.940689
22.8117 27.742 22.2835 0.692836 -0.0412868 -0.305658
25.1252 73.4975 61.8468 0.968277 -0.014494 0.235689
23.3149 -5.50709 8.74751 0.853428 -0.0515237 0.474874
8.85689 -99.6018 11.1113 0.663238 0.665828 -0.319872
19.3844 -97.8509 21.2805 0.140915 -0.968764 -0.135913
11.6164 -79.7742 -15.9229 0.70956 0.0392701 0.699727
4.11278 -34.6637 0.355448 -0.00641523 0.950021 0.307671
30.9777 75.8036 -7.22226 0.340861 0.178278 -0.919461
7.66181 -47.3474 -25.6231 0.18942 0.0058136 -0.962361
16.1732 56.9343 58.63 -0.545522 -0.104578 0.671876
-12.2484 78.2799 18.1061 -0.903316 -0.370163 0.213786
8.91943 67.7823 66.2047 0.0131685 -0.630724 0.742893
-10.3303 -68.8912 60.1513 -0.983673 0.00268496 0.15468
-14.1196 81.9331 17.0485 -0.912101 -0.315073 0.218837
-1.59746 -95.6021 9.89253 -0.436644 -0.816394 -0.214374
-10.6523 71.3747 54.7691 -0.995394 -0.0300965 0.0825544
-7.69853 -35.4403 19.4789 -0.688055 0.0486495 -0.045894
10.6705 -70.2225 66.1736 0.0067919 0.602382 0.754875
31.2694 59.4807 -7.78799 0.183037 0.0105713 -0.97809
-0.76003 -94.1703 5.00449 -0.484195 -0.765907 -0.282083
17.0502 40.5984 1.25371 -0.000193245 0.00185908 -0.999998
9.06295 -88.7204 -18.6031 0.757749 0.0919263 0.603734
16.1649 -67.4485 59.2653 -0.104505 0.729533 0.673435
25.513 -36.3977 41.3106 0.998715 -0.00126141 0.0207719
-10.5694 -74.2765 51.051 -0.997482 0.00073753 0.0564871
25.7115 -52.7416 52.7673 0.997201 -0.00344323 0.0633409
25.666 -39.0099 0.392315 0.619778 0.639863 -0.084505
12.1193 -100.141 59.6226 0.042598 -0.822037 0.566198
-11.3885 15.6572 7.76362 -0.448579 -0.0150311 0.80685
31.357 88.6481 10.7791 0.977418 0.193951 0.0516104
14.297 -14.9196 0.163931 0.284058 -0.613795 -0.730569
25.3001 -66.0403 10.4581 0.935098 0.0366386 0.259344
-10.5793 10.2003 51.2331 -0.996767 -0.0152538 0.0625326
25.529 -58.346 42.2056 0.998643 0.00188717 0.0236918
-10.2563 -47.761 9.02154 -0.903661 0.180244 -0.161851
-11.0051 69.8661 10.447 -0.898148 -0.228388 0.365626
-5.47457 52.5901 65.9932 0.156543 0.00886806 0.903241
6.0398 -56.8594 58.63 0.0958658 0.229362 0.644391
22.8719 17.6533 6.73 0.581691 -0.137349 -0.642142
19.0296 4.87275 59.8513 -0.711741 0.050745 0.672643
